       C1        P1        P2         X            Z    AppMx
  4000.00   4050.00   4250.00   4075.00       -25.00      1.96
  4000.00   4250.00   4450.00   4175.00      -125.00      4.21
  4000.00   4350.00   4750.00   4275.00      -175.00      5.60
  4000.00   4250.00   4650.00   4225.00      -125.00      4.65
  4000.00   4050.00   4450.00   4125.00       -25.00      2.30
  4000.00   4150.00   4440.00   4147.50       -75.00      1.98
  3900.00   4650.00   4750.00   4300.00      -375.00      6.65
  3900.00   4350.00   4450.00   4150.00      -225.00      5.59
  3900.00   4250.00   4350.00   4100.00      -175.00      5.12
  3900.00   4440.00   4650.00   4222.50      -270.00      5.91
  3900.00   3950.00   4050.00   3950.00       -25.00      1.68
  3900.00   4050.00   4150.00   4000.00       -75.00      9.08
  3900.00   4450.00   4440.00   4177.50      -270.00      6.56
  3900.00   4440.00   4750.00   4247.50      -270.00      6.29
  3900.00   4350.00   4440.00   4147.50      -225.00      5.96
  3900.00   4450.00   4650.00   4225.00      -275.00      6.27
  3900.00   4050.00   4250.00   4025.00       -75.00      3.41
  3900.00   4250.00   4450.00   4125.00      -175.00      5.31
  3900.00   3950.00   4150.00   3975.00       -25.00      2.77
  3900.00   4350.00   4750.00   4225.00      -225.00      6.08
  3900.00   3950.00   4350.00   4025.00       -25.00      2.24
  3900.00   4250.00   4650.00   4175.00      -175.00      5.62
  3900.00   4050.00   4450.00   4075.00       -75.00      4.03
  3900.00   4150.00   4440.00   4097.50      -125.00      1.33
  3900.00   3950.00   4750.00   4125.00       -25.00      2.63
  3800.00   4650.00   4750.00   4250.00      -425.00      6.38
  3800.00   4350.00   4450.00   4100.00      -275.00      6.14
  3800.00   4250.00   4350.00   4050.00      -225.00      6.01
  3800.00   4440.00   4650.00   4172.50      -320.00      5.33
  3800.00   3950.00   4050.00   3900.00       -75.00      2.70
  3800.00   4450.00   4440.00   4127.50      -320.00      8.79
  3800.00   3850.00   3950.00   3850.00       -25.00      1.92
  3800.00   4440.00   4750.00   4197.50      -320.00      5.85
  3800.00   4350.00   4440.00   4097.50      -275.00      7.19
  3800.00   4450.00   4650.00   4175.00      -325.00      7.23
  3800.00   3850.00   4050.00   3875.00       -25.00      2.04
  3800.00   4050.00   4250.00   3975.00      -125.00      4.84
  3800.00   4250.00   4450.00   4075.00      -225.00      6.08
  3800.00   3950.00   4150.00   3925.00       -75.00      7.50
  3800.00   4350.00   4750.00   4175.00      -275.00      6.67
  3800.00   3950.00   4350.00   3975.00       -75.00      4.10
  3800.00   4250.00   4650.00   4125.00      -225.00      6.47
  3800.00   4050.00   4450.00   4025.00      -125.00      5.33
  3800.00   4150.00   4440.00   4047.50      -175.00      1.09
  3800.00   3850.00   4250.00   3925.00       -25.00      2.40
  3800.00   3950.00   4750.00   4075.00       -75.00      4.73
  3800.00   3850.00   4650.00   4025.00       -25.00      2.85
  3700.00   4650.00   4750.00   4200.00      -475.00      6.87
  3700.00   3750.00   3850.00   3750.00       -25.00      2.03
  3700.00   4350.00   4450.00   4050.00      -325.00      6.94
  3700.00   4250.00   4350.00   4000.00      -275.00      6.41
  3700.00   4440.00   4650.00   4122.50      -370.00      9.99
  3700.00   3950.00   4050.00   3850.00      -125.00      4.09
  3700.00   4450.00   4440.00   4077.50      -370.00      7.31
  3700.00   3850.00   3950.00   3800.00       -75.00      3.16
  3700.00   4440.00   4750.00   4147.50      -370.00      8.75
  3700.00   3750.00   3950.00   3775.00       -25.00      2.21
  3700.00   4350.00   4440.00   4047.50      -325.00      7.37
  3700.00   4450.00   4650.00   4125.00      -375.00      7.94
  3700.00   3850.00   4050.00   3825.00       -75.00      3.45
  3700.00   4050.00   4250.00   3925.00      -175.00      5.36
  3700.00   4250.00   4450.00   4025.00      -275.00      6.64
  3700.00   4350.00   4750.00   4125.00      -325.00      7.37
  3700.00   3750.00   4150.00   3825.00       -25.00      3.30
  3700.00   3950.00   4350.00   3925.00      -125.00      5.14
  3700.00   4250.00   4650.00   4075.00      -275.00      7.10
  3700.00   4050.00   4450.00   3975.00      -175.00      5.91
  3700.00   3850.00   4250.00   3875.00       -75.00      4.03
  3700.00   3950.00   4750.00   4025.00      -125.00      5.82
  3700.00   3750.00   4440.00   3897.50       -25.00      3.00
  3700.00   3850.00   4650.00   3975.00       -75.00      4.83
  3600.00   4650.00   4750.00   4150.00      -525.00      6.16
  3600.00   3650.00   3750.00   3650.00       -25.00      2.27
  3600.00   3750.00   3850.00   3700.00       -75.00      3.70
  3600.00   4350.00   4450.00   4000.00      -375.00      7.84
  3600.00   4250.00   4350.00   3950.00      -325.00      6.64
  3600.00   4440.00   4650.00   4072.50      -420.00      8.05
  3600.00   3950.00   4050.00   3800.00      -175.00      5.01
  3600.00   4450.00   4440.00   4027.50      -420.00      8.68
  3600.00   3850.00   3950.00   3750.00      -125.00      4.27
  3600.00   4440.00   4750.00   4097.50      -420.00      7.06
  3600.00   3750.00   3950.00   3725.00       -75.00      3.87
  3600.00   4350.00   4440.00   3997.50      -375.00      8.20
  3600.00   4450.00   4650.00   4075.00      -425.00      8.38
  3600.00   3850.00   4050.00   3775.00      -125.00      4.56
  3600.00   4050.00   4250.00   3875.00      -225.00      6.11
  3600.00   3650.00   3850.00   3675.00       -25.00      2.54
  3600.00   4250.00   4450.00   3975.00      -325.00      7.20
  3600.00   4350.00   4750.00   4075.00      -375.00      7.73
  3600.00   3750.00   4150.00   3775.00       -75.00      6.55
  3600.00   3950.00   4350.00   3875.00      -175.00      5.92
  3600.00   4250.00   4650.00   4025.00      -325.00      7.65
  3600.00   3650.00   4050.00   3725.00       -25.00      2.78
  3600.00   4050.00   4450.00   3925.00      -225.00      6.61
  3600.00   4150.00   4440.00   3947.50      -275.00      1.17
  3600.00   3850.00   4250.00   3825.00      -125.00      5.17
  3600.00   3950.00   4750.00   3975.00      -175.00      6.55
  3600.00   3750.00   4440.00   3847.50       -75.00      5.07
  3600.00   3850.00   4650.00   3925.00      -125.00      6.01
  3600.00   3650.00   4450.00   3825.00       -25.00      3.25
  3500.00   4650.00   4750.00   4100.00      -575.00      6.27
  3500.00   3650.00   3750.00   3600.00       -75.00      4.42
  3500.00   3750.00   3850.00   3650.00      -125.00      4.86
  3500.00   4350.00   4450.00   3950.00      -425.00      7.73
  3500.00   4250.00   4350.00   3900.00      -375.00      7.01
  3500.00   4440.00   4650.00   4022.50      -470.00      8.31
  3500.00   3950.00   4050.00   3750.00      -225.00      6.39
  3500.00   3550.00   3650.00   3550.00       -25.00      2.28
  3500.00   4450.00   4440.00   3977.50      -470.00      9.44
  3500.00   3850.00   3950.00   3700.00      -175.00      5.06
  3500.00   4440.00   4750.00   4047.50      -470.00      7.24
  3500.00   3750.00   3950.00   3675.00      -125.00      4.94
  3500.00   3550.00   3750.00   3575.00       -25.00      2.56
  3500.00   4350.00   4440.00   3947.50      -425.00      8.43
  3500.00   4450.00   4650.00   4025.00      -475.00      8.91
  3500.00   3850.00   4050.00   3725.00      -175.00      5.65
  3500.00   4050.00   4250.00   3825.00      -275.00      6.17
  3500.00   3650.00   3850.00   3625.00       -75.00      4.56
  3500.00   4250.00   4450.00   3925.00      -375.00      7.32
  3500.00   4350.00   4750.00   4025.00      -425.00      7.91
  3500.00   3750.00   4150.00   3725.00      -125.00      8.46
  3500.00   3950.00   4350.00   3825.00      -225.00      6.43
  3500.00   4250.00   4650.00   3975.00      -375.00      7.93
  3500.00   3650.00   4050.00   3675.00       -75.00      4.82
  3500.00   4050.00   4450.00   3875.00      -275.00      6.70
  3500.00   4150.00   4440.00   3897.50      -325.00      2.03
  3500.00   3850.00   4250.00   3775.00      -175.00      5.88
  3500.00   3550.00   3950.00   3625.00       -25.00      2.78
  3500.00   3950.00   4750.00   3925.00      -225.00      7.00
  3500.00   3750.00   4440.00   3797.50      -125.00      6.11
  3500.00   3550.00   4350.00   3725.00       -25.00      3.09
  3500.00   3850.00   4650.00   3875.00      -175.00      6.68
  3500.00   3650.00   4450.00   3775.00       -75.00      5.33
  3400.00   4650.00   4750.00   4050.00      -625.00      6.26
  3400.00   3650.00   3750.00   3550.00      -125.00      5.42
  3400.00   3750.00   3850.00   3600.00      -175.00      6.35
  3400.00   4350.00   4450.00   3900.00      -475.00      8.43
  3400.00   4250.00   4350.00   3850.00      -425.00      6.84
  3400.00   4440.00   4650.00   3972.50      -520.00      7.95
  3400.00   3950.00   4050.00   3700.00      -275.00      7.17
  3400.00   3550.00   3650.00   3500.00       -75.00      4.30
  3400.00   4450.00   4440.00   3927.50      -520.00      8.81
  3400.00   3850.00   3950.00   3650.00      -225.00      4.04
  3400.00   3450.00   3550.00   3450.00       -25.00      2.76
  3400.00   4440.00   4750.00   3997.50      -520.00      7.10
  3400.00   3750.00   3950.00   3625.00      -175.00      5.41
  3400.00   3550.00   3750.00   3525.00       -75.00      4.59
  3400.00   4350.00   4440.00   3897.50      -475.00      8.61
  3400.00   4150.00   4350.00   3825.00      -375.00      1.05
  3400.00   4450.00   4650.00   3975.00      -525.00      8.45
  3400.00   3850.00   4050.00   3675.00      -225.00      5.45
  3400.00   4050.00   4250.00   3775.00      -325.00      6.81
  3400.00   3650.00   3850.00   3575.00      -125.00      5.76
  3400.00   3450.00   3650.00   3475.00       -25.00      3.07
  3400.00   4250.00   4450.00   3875.00      -425.00      7.63
  3400.00   4350.00   4750.00   3975.00      -475.00      7.97
  3400.00   3750.00   4150.00   3675.00      -175.00      8.48
  3400.00   3950.00   4350.00   3775.00      -275.00      6.91
  3400.00   4250.00   4650.00   3925.00      -425.00      7.94
  3400.00   3650.00   4050.00   3625.00      -125.00      5.66
  3400.00   4050.00   4450.00   3825.00      -325.00      7.20
  3400.00   4150.00   4440.00   3847.50      -375.00      4.28
  3400.00   3850.00   4250.00   3725.00      -225.00      6.11
  3400.00   3450.00   3850.00   3525.00       -25.00      3.34
  3400.00   3550.00   3950.00   3575.00       -75.00      4.76
  3400.00   3950.00   4750.00   3875.00      -275.00      7.33
  3400.00   3750.00   4440.00   3747.50      -175.00      6.69
  3400.00   3550.00   4350.00   3675.00       -75.00      5.22
  3400.00   3850.00   4650.00   3825.00      -225.00      6.88
  3400.00   3650.00   4450.00   3725.00      -125.00      6.22
  3400.00   3450.00   4250.00   3625.00       -25.00      3.57
  3300.00   4650.00   4750.00   4000.00      -675.00      6.14
  3300.00   3650.00   3750.00   3500.00      -175.00      6.62
  3300.00   3750.00   3850.00   3550.00      -225.00      4.75
  3300.00   3350.00   3450.00   3350.00       -25.00      2.98
  3300.00   4350.00   4450.00   3850.00      -525.00      7.84
  3300.00   4250.00   4350.00   3800.00      -475.00      8.30
  3300.00   4440.00   4650.00   3922.50      -570.00      8.89
  3300.00   3950.00   4050.00   3650.00      -325.00      6.73
  3300.00   4050.00   4150.00   3700.00      -375.00      8.33
  3300.00   3550.00   3650.00   3450.00      -125.00      5.39
  3300.00   4450.00   4440.00   3877.50      -570.00      9.13
  3300.00   3850.00   3950.00   3600.00      -275.00      5.34
  3300.00   4150.00   4250.00   3750.00      -425.00      5.27
  3300.00   3450.00   3550.00   3400.00       -75.00      5.20
  3300.00   4440.00   4750.00   3947.50      -570.00      7.45
  3300.00   3750.00   3950.00   3575.00      -225.00      5.02
  3300.00   3550.00   3750.00   3475.00      -125.00      5.78
  3300.00   3350.00   3550.00   3375.00       -25.00      3.32
  3300.00   4350.00   4440.00   3847.50      -525.00      8.35
  3300.00   4150.00   4350.00   3775.00      -425.00      6.79
  3300.00   4450.00   4650.00   3925.00      -575.00      9.01
  3300.00   3850.00   4050.00   3625.00      -275.00      6.00
  3300.00   4050.00   4250.00   3725.00      -375.00      6.56
  3300.00   3650.00   3850.00   3525.00      -175.00      5.88
  3300.00   3450.00   3650.00   3425.00       -75.00      5.27
  3300.00   4250.00   4450.00   3825.00      -475.00      8.06
  3300.00   3950.00   4150.00   3675.00      -325.00      7.57
  3300.00   4350.00   4750.00   3925.00      -525.00      7.93
  3300.00   3350.00   3750.00   3425.00       -25.00      3.58
  3300.00   3750.00   4150.00   3625.00      -225.00      6.10
  3300.00   3950.00   4350.00   3725.00      -325.00      7.04
  3300.00   4250.00   4650.00   3875.00      -475.00      8.43
  3300.00   3650.00   4050.00   3575.00      -175.00      5.91
  3300.00   4050.00   4450.00   3775.00      -375.00      7.30
  3300.00   4150.00   4440.00   3797.50      -425.00      7.42
  3300.00   3850.00   4250.00   3675.00      -275.00      6.29
  3300.00   3450.00   3850.00   3475.00       -75.00      5.39
  3300.00   3550.00   3950.00   3525.00      -125.00      5.57
  3300.00   3950.00   4750.00   3825.00      -325.00      7.42
  3300.00   3750.00   4440.00   3697.50      -225.00      6.70
  3300.00   3350.00   4150.00   3525.00       -25.00      3.75
  3300.00   3550.00   4350.00   3625.00      -125.00      6.03
  3300.00   3850.00   4650.00   3775.00      -275.00      7.25
  3300.00   3650.00   4450.00   3675.00      -175.00      6.51
  3300.00   3450.00   4250.00   3575.00       -75.00      5.57
  3200.00   4650.00   4750.00   3950.00      -725.00      6.73
  3200.00   3650.00   3750.00   3450.00      -225.00      7.26
  3200.00   3750.00   3850.00   3500.00      -275.00      6.68
  3200.00   3250.00   3350.00   3250.00       -25.00      3.48
  3200.00   3350.00   3450.00   3300.00       -75.00      5.54
  3200.00   4250.00   4350.00   3750.00      -525.00      8.49
  3200.00   4440.00   4650.00   3872.50      -620.00      8.56
  3200.00   3950.00   4050.00   3600.00      -375.00      4.08
  3200.00   3550.00   3650.00   3400.00      -175.00      5.62
  3200.00   4450.00   4440.00   3827.50      -620.00      4.43
  3200.00   3850.00   3950.00   3550.00      -325.00      5.50
  3200.00   3450.00   3550.00   3350.00      -125.00      6.74
  3200.00   4440.00   4750.00   3897.50      -620.00      7.53
  3200.00   3750.00   3950.00   3525.00      -275.00      6.16
  3200.00   3550.00   3750.00   3425.00      -175.00      6.19
  3200.00   3350.00   3550.00   3325.00       -75.00      5.89
  3200.00   4350.00   4440.00   3797.50      -575.00      8.25
  3200.00   4450.00   4650.00   3875.00      -625.00      6.88
  3200.00   3850.00   4050.00   3575.00      -325.00      4.81
  3200.00   4050.00   4250.00   3675.00      -425.00      7.10
  3200.00   3650.00   3850.00   3475.00      -225.00      6.99
  3200.00   3450.00   3650.00   3375.00      -125.00      6.30
  3200.00   3250.00   3450.00   3275.00       -25.00      3.86
  3200.00   4350.00   4750.00   3875.00      -575.00      7.91
  3200.00   3350.00   3750.00   3375.00       -75.00      5.95
  3200.00   3750.00   4150.00   3575.00      -275.00      1.10
  3200.00   3950.00   4350.00   3675.00      -375.00      6.81
  3200.00   4250.00   4650.00   3825.00      -525.00      8.36
  3200.00   3650.00   4050.00   3525.00      -225.00      6.11
  3200.00   4050.00   4450.00   3725.00      -425.00      9.32
  3200.00   3250.00   3650.00   3325.00       -25.00      4.11
  3200.00   3850.00   4250.00   3625.00      -325.00      6.04
  3200.00   3450.00   3850.00   3425.00      -125.00      6.49
  3200.00   3550.00   3950.00   3475.00      -175.00      6.17
  3200.00   3950.00   4750.00   3775.00      -375.00      7.30
  3200.00   3750.00   4440.00   3647.50      -275.00      6.95
  3200.00   3350.00   4150.00   3475.00       -75.00      5.14
  3200.00   3550.00   4350.00   3575.00      -175.00      6.42
  3200.00   3850.00   4650.00   3725.00      -325.00      7.13
  3200.00   3250.00   4050.00   3425.00       -25.00      4.23
  3200.00   3650.00   4450.00   3625.00      -225.00      7.82
  3200.00   3450.00   4250.00   3525.00      -125.00      6.36
  3100.00   4650.00   4750.00   3900.00      -775.00      6.74
  3100.00   3650.00   3750.00   3400.00      -275.00      6.05
  3100.00   3750.00   3850.00   3450.00      -325.00      5.49
  3100.00   3250.00   3350.00   3200.00       -75.00      5.39
  3100.00   3350.00   3450.00   3250.00      -125.00      6.49
  3100.00   3150.00   3250.00   3150.00       -25.00      3.71
  3100.00   4250.00   4350.00   3700.00      -575.00      7.82
  3100.00   4440.00   4650.00   3822.50      -670.00      7.02
  3100.00   3950.00   4050.00   3550.00      -425.00      6.54
  3100.00   3550.00   3650.00   3350.00      -225.00      6.80
  3100.00   4450.00   4440.00   3777.50      -670.00      3.83
  3100.00   3850.00   3950.00   3500.00      -375.00      0.78
  3100.00   3450.00   3550.00   3300.00      -175.00      6.87
  3100.00   4440.00   4750.00   3847.50      -670.00      6.88
  3100.00   3750.00   3950.00   3475.00      -325.00      3.36
  3100.00   3550.00   3750.00   3375.00      -225.00      6.51
  3100.00   3150.00   3350.00   3175.00       -25.00      3.89
  3100.00   3350.00   3550.00   3275.00      -125.00      6.61
  3100.00   4350.00   4440.00   3747.50      -625.00      8.67
  3100.00   4450.00   4650.00   3825.00      -675.00      5.86
  3100.00   3850.00   4050.00   3525.00      -375.00      3.63
  3100.00   4050.00   4250.00   3625.00      -475.00      7.50
  3100.00   3650.00   3850.00   3425.00      -275.00      5.84
  3100.00   3450.00   3650.00   3325.00      -175.00      6.83
  3100.00   3250.00   3450.00   3225.00       -75.00      5.75
  3100.00   4350.00   4750.00   3825.00      -625.00      7.87
  3100.00   3350.00   3750.00   3325.00      -125.00      6.58
  3100.00   3150.00   3550.00   3225.00       -25.00      4.13
  3100.00   3950.00   4350.00   3625.00      -425.00      7.37
  3100.00   4250.00   4650.00   3775.00      -575.00      8.07
  3100.00   3650.00   4050.00   3475.00      -275.00      4.85
  3100.00   4050.00   4450.00   3675.00      -475.00      9.78
  3100.00   3250.00   3650.00   3275.00       -75.00      6.02
  3100.00   3850.00   4250.00   3575.00      -375.00      5.76
  3100.00   3450.00   3850.00   3375.00      -175.00      6.49
  3100.00   3550.00   3950.00   3425.00      -225.00      5.34
  3100.00   3950.00   4750.00   3725.00      -425.00      7.59
  3100.00   3750.00   4440.00   3597.50      -325.00      6.72
  3100.00   3350.00   4150.00   3425.00      -125.00      3.28
  3100.00   3150.00   3950.00   3325.00       -25.00      4.19
  3100.00   3550.00   4350.00   3525.00      -225.00      6.25
  3100.00   3850.00   4650.00   3675.00      -375.00      6.90
  3100.00   3250.00   4050.00   3375.00       -75.00      5.87
  3100.00   3650.00   4450.00   3575.00      -275.00      7.54
  3100.00   3450.00   4250.00   3475.00      -175.00      6.23
  3000.00   4650.00   4750.00   3850.00      -825.00      5.55
  3000.00   3650.00   3750.00   3350.00      -325.00      5.46
  3000.00   3750.00   3850.00   3400.00      -375.00      5.71
  3000.00   3050.00   3150.00   3050.00       -25.00      3.03
  3000.00   3250.00   3350.00   3150.00      -125.00      6.18
  3000.00   3350.00   3450.00   3200.00      -175.00      8.21
  3000.00   3150.00   3250.00   3100.00       -75.00      6.66
  3000.00   4350.00   4450.00   3700.00      -675.00      6.80
  3000.00   4250.00   4350.00   3650.00      -625.00      5.87
  3000.00   4440.00   4650.00   3772.50      -720.00      7.84
  3000.00   3950.00   4050.00   3500.00      -475.00      8.11
  3000.00   3550.00   3650.00   3300.00      -275.00      3.29
  3000.00   3850.00   3950.00   3450.00      -425.00      4.18
  3000.00   3450.00   3550.00   3250.00      -225.00      6.42
  3000.00   4440.00   4750.00   3797.50      -720.00      6.63
  3000.00   3750.00   3950.00   3425.00      -375.00      4.96
  3000.00   3550.00   3750.00   3325.00      -275.00      4.17
  3000.00   3050.00   3250.00   3075.00       -25.00      3.50
  3000.00   3150.00   3350.00   3125.00       -75.00      6.54
  3000.00   3350.00   3550.00   3225.00      -175.00      7.60
  3000.00   4350.00   4440.00   3697.50      -675.00      8.89
  3000.00   4450.00   4650.00   3775.00      -725.00      9.88
  3000.00   3850.00   4050.00   3475.00      -425.00      6.21
  3000.00   4050.00   4250.00   3575.00      -525.00      7.31
  3000.00   3650.00   3850.00   3375.00      -325.00      5.56
  3000.00   3450.00   3650.00   3275.00      -225.00      5.02
  3000.00   3250.00   3450.00   3175.00      -125.00      6.90
  3000.00   4250.00   4450.00   3675.00      -625.00      6.34
  3000.00   4350.00   4750.00   3775.00      -675.00      7.85
  3000.00   3350.00   3750.00   3275.00      -175.00      6.44
  3000.00   3050.00   3450.00   3125.00       -25.00      3.72
  3000.00   3150.00   3550.00   3175.00       -75.00      6.73
  3000.00   3950.00   4350.00   3575.00      -475.00      7.06
  3000.00   4250.00   4650.00   3725.00      -625.00      7.77
  3000.00   3650.00   4050.00   3425.00      -325.00      5.85
  3000.00   4050.00   4450.00   3625.00      -525.00      6.78
  3000.00   3250.00   3650.00   3225.00      -125.00      6.39
  3000.00   3850.00   4250.00   3525.00      -425.00      6.78
  3000.00   3450.00   3850.00   3325.00      -225.00      5.21
  3000.00   3550.00   3950.00   3375.00      -275.00      4.48
  3000.00   3950.00   4750.00   3675.00      -475.00      7.41
  3000.00   3750.00   4440.00   3547.50      -375.00      7.04
  3000.00   3050.00   3850.00   3225.00       -25.00      3.77
  3000.00   3150.00   3950.00   3275.00       -75.00      6.43
  3000.00   3550.00   4350.00   3475.00      -275.00      5.72
  3000.00   3850.00   4650.00   3625.00      -425.00      7.29
  3000.00   3250.00   4050.00   3325.00      -125.00      6.27
  3000.00   3650.00   4450.00   3525.00      -325.00      6.35
  3000.00   3450.00   4250.00   3425.00      -225.00      5.85
  2900.00   4650.00   4750.00   3800.00      -875.00      6.27
  2900.00   3650.00   3750.00   3300.00      -375.00      7.77
  2900.00   3750.00   3850.00   3350.00      -425.00      2.76
  2900.00   3050.00   3150.00   3000.00       -75.00      6.65
  2900.00   2950.00   3050.00   2950.00       -25.00      3.73
  2900.00   3250.00   3350.00   3100.00      -175.00      7.17
  2900.00   3350.00   3450.00   3150.00      -225.00      5.33
  2900.00   3150.00   3250.00   3050.00      -125.00      7.99
  2900.00   4350.00   4450.00   3650.00      -725.00      8.61
  2900.00   4250.00   4350.00   3600.00      -675.00      2.97
  2900.00   4440.00   4650.00   3722.50      -770.00      6.65
  2900.00   3950.00   4050.00   3450.00      -525.00      5.45
  2900.00   3550.00   3650.00   3250.00      -325.00      2.25
  2900.00   3850.00   3950.00   3400.00      -475.00      3.33
  2900.00   4440.00   4750.00   3747.50      -770.00      6.50
  2900.00   3750.00   3950.00   3375.00      -425.00      3.01
  2900.00   3550.00   3750.00   3275.00      -325.00      4.45
  2900.00   3050.00   3250.00   3025.00       -75.00      7.02
  2900.00   3150.00   3350.00   3075.00      -125.00      7.73
  2900.00   3350.00   3550.00   3175.00      -225.00      7.47
  2900.00   2950.00   3150.00   2975.00       -25.00      4.16
  2900.00   4450.00   4650.00   3725.00      -775.00      9.49
  2900.00   3850.00   4050.00   3425.00      -475.00      4.29
  2900.00   4050.00   4250.00   3525.00      -575.00      8.91
  2900.00   3650.00   3850.00   3325.00      -375.00      5.43
  2900.00   3450.00   3650.00   3225.00      -275.00      6.62
  2900.00   3250.00   3450.00   3125.00      -175.00      6.44
  2900.00   4250.00   4450.00   3625.00      -675.00      5.78
  2900.00   4350.00   4750.00   3725.00      -725.00      8.44
  2900.00   3350.00   3750.00   3225.00      -225.00      6.30
  2900.00   3050.00   3450.00   3075.00       -75.00      6.92
  2900.00   2950.00   3350.00   3025.00       -25.00      4.44
  2900.00   3150.00   3550.00   3125.00      -125.00      7.66
  2900.00   3950.00   4350.00   3525.00      -525.00      6.52
  2900.00   4250.00   4650.00   3675.00      -675.00      7.32
  2900.00   3650.00   4050.00   3375.00      -375.00      4.91
  2900.00   4050.00   4450.00   3575.00      -575.00      7.26
  2900.00   3250.00   3650.00   3175.00      -175.00      6.49
  2900.00   3850.00   4250.00   3475.00      -475.00      6.91
  2900.00   3450.00   3850.00   3275.00      -275.00      6.12
  2900.00   3550.00   3950.00   3325.00      -325.00      3.85
  2900.00   3950.00   4750.00   3625.00      -525.00      7.42
  2900.00   3750.00   4440.00   3497.50      -425.00      6.69
  2900.00   2950.00   3750.00   3125.00       -25.00      4.52
  2900.00   3050.00   3850.00   3175.00       -75.00      6.82
  2900.00   3150.00   3950.00   3225.00      -125.00      6.83
  2900.00   3550.00   4350.00   3425.00      -325.00      5.22
  2900.00   3850.00   4650.00   3575.00      -475.00      7.12
  2900.00   3250.00   4050.00   3275.00      -175.00      6.03
  2900.00   3650.00   4450.00   3475.00      -375.00      6.24
  2900.00   3450.00   4250.00   3375.00      -275.00      6.50
  2800.00   4650.00   4750.00   3750.00      -925.00      6.66
  2800.00   3750.00   3850.00   3300.00      -475.00      8.80
  2800.00   3050.00   3150.00   2950.00      -125.00      7.32
  2800.00   2950.00   3050.00   2900.00       -75.00      7.53
  2800.00   3250.00   3350.00   3050.00      -225.00      7.89
  2800.00   3350.00   3450.00   3100.00      -275.00      0.91
  2800.00   3150.00   3250.00   3000.00      -175.00      6.39
  2800.00   4350.00   4450.00   3600.00      -775.00      6.40
  2800.00   4250.00   4350.00   3550.00      -725.00      6.18
  2800.00   4440.00   4650.00   3672.50      -820.00      8.48
  2800.00   3950.00   4050.00   3400.00      -575.00      9.34
  2800.00   3550.00   3650.00   3200.00      -375.00      3.41
  2800.00   4450.00   4440.00   3627.50      -820.00      6.28
  2800.00   3850.00   3950.00   3350.00      -525.00      1.15
  2800.00   2850.00   2950.00   2850.00       -25.00      4.48
  2800.00   4440.00   4750.00   3697.50      -820.00      7.46
  2800.00   3750.00   3950.00   3325.00      -475.00      5.01
  2800.00   3550.00   3750.00   3225.00      -375.00      1.19
  2800.00   3050.00   3250.00   2975.00      -125.00      7.01
  2800.00   2850.00   3050.00   2875.00       -25.00      4.91
  2800.00   3150.00   3350.00   3025.00      -175.00      6.95
  2800.00   3350.00   3550.00   3125.00      -275.00      5.96
  2800.00   2950.00   3150.00   2925.00       -75.00      7.47
  2800.00   4350.00   4440.00   3597.50      -775.00      6.37
  2800.00   4450.00   4650.00   3675.00      -825.00      7.31
  2800.00   3850.00   4050.00   3375.00      -525.00      5.37
  2800.00   4050.00   4250.00   3475.00      -625.00      6.93
  2800.00   3650.00   3850.00   3275.00      -425.00      3.19
  2800.00   3450.00   3650.00   3175.00      -325.00      8.35
  2800.00   3250.00   3450.00   3075.00      -225.00      4.92
  2800.00   4250.00   4450.00   3575.00      -725.00      6.33
  2800.00   4350.00   4750.00   3675.00      -775.00      6.87
  2800.00   3350.00   3750.00   3175.00      -275.00      3.96
  2800.00   3050.00   3450.00   3025.00      -125.00      6.48
  2800.00   2950.00   3350.00   2975.00       -75.00      7.37
  2800.00   3150.00   3550.00   3075.00      -175.00      6.64
  2800.00   3950.00   4350.00   3475.00      -575.00      7.15
  2800.00   4250.00   4650.00   3625.00      -725.00      6.71
  2800.00   3650.00   4050.00   3325.00      -425.00      4.26
  2800.00   4050.00   4450.00   3525.00      -625.00      6.60
  2800.00   3250.00   3650.00   3125.00      -225.00      6.17
  2800.00   2850.00   3250.00   2925.00       -25.00      5.07
  2800.00   3850.00   4250.00   3425.00      -525.00      6.27
  2800.00   3450.00   3850.00   3225.00      -325.00      6.20
  2800.00   3550.00   3950.00   3275.00      -375.00      2.85
  2800.00   3950.00   4750.00   3575.00      -575.00      7.03
  2800.00   3750.00   4440.00   3447.50      -475.00      6.53
  2800.00   2950.00   3750.00   3075.00       -75.00      6.93
  2800.00   3050.00   3850.00   3125.00      -125.00      6.42
  2800.00   3150.00   3950.00   3175.00      -175.00      5.56
  2800.00   3550.00   4350.00   3375.00      -375.00      5.15
  2800.00   3850.00   4650.00   3525.00      -525.00      6.50
  2800.00   3250.00   4050.00   3225.00      -225.00      5.54
  2800.00   3650.00   4450.00   3425.00      -425.00      5.63
  2800.00   2850.00   3650.00   3025.00       -25.00      5.11
  2800.00   3450.00   4250.00   3325.00      -325.00      6.22
  2700.00   4650.00   4750.00   3700.00      -975.00      3.40
  2700.00   2750.00   2850.00   2750.00       -25.00      4.96
  2700.00   3750.00   3850.00   3250.00      -525.00      9.31
  2700.00   3050.00   3150.00   2900.00      -175.00      4.77
  2700.00   2950.00   3050.00   2850.00      -125.00      7.44
  2700.00   3250.00   3350.00   3000.00      -275.00      3.36
  2700.00   3350.00   3450.00   3050.00      -325.00      4.03
  2700.00   3150.00   3250.00   2950.00      -225.00      7.20
  2700.00   4350.00   4450.00   3550.00      -825.00      6.60
  2700.00   4250.00   4350.00   3500.00      -775.00      4.53
  2700.00   4440.00   4650.00   3622.50      -870.00      3.48
  2700.00   3950.00   4050.00   3350.00      -625.00      3.28
  2700.00   3550.00   3650.00   3150.00      -425.00      4.90
  2700.00   2850.00   2950.00   2800.00       -75.00      8.10
  2700.00   4440.00   4750.00   3647.50      -870.00      3.43
  2700.00   2750.00   2950.00   2775.00       -25.00      5.37
  2700.00   3750.00   3950.00   3275.00      -525.00      3.49
  2700.00   3550.00   3750.00   3175.00      -425.00      1.69
  2700.00   3050.00   3250.00   2925.00      -175.00      5.70
  2700.00   2850.00   3050.00   2825.00       -75.00      7.91
  2700.00   3150.00   3350.00   2975.00      -225.00      5.66
  2700.00   3350.00   3550.00   3075.00      -325.00      7.00
  2700.00   2950.00   3150.00   2875.00      -125.00      6.49
  2700.00   4350.00   4440.00   3547.50      -825.00      8.13
  2700.00   4450.00   4650.00   3625.00      -875.00      6.93
  2700.00   3850.00   4050.00   3325.00      -575.00      0.57
  2700.00   3650.00   3850.00   3225.00      -475.00      3.19
  2700.00   3450.00   3650.00   3125.00      -375.00      7.95
  2700.00   3250.00   3450.00   3025.00      -275.00      3.61
  2700.00   4250.00   4450.00   3525.00      -775.00      5.63
  2700.00   4350.00   4750.00   3625.00      -825.00      5.91
  2700.00   2750.00   3150.00   2825.00       -25.00      5.45
  2700.00   3350.00   3750.00   3125.00      -325.00      4.67
  2700.00   3050.00   3450.00   2975.00      -175.00      5.05
  2700.00   2950.00   3350.00   2925.00      -125.00      6.27
  2700.00   3150.00   3550.00   3025.00      -225.00      6.12
  2700.00   3950.00   4350.00   3425.00      -625.00      7.21
  2700.00   4250.00   4650.00   3575.00      -775.00      6.18
  2700.00   3650.00   4050.00   3275.00      -475.00      1.83
  2700.00   4050.00   4450.00   3475.00      -675.00      7.78
  2700.00   3250.00   3650.00   3075.00      -275.00      5.35
  2700.00   2850.00   3250.00   2875.00       -75.00      7.47
  2700.00   3850.00   4250.00   3375.00      -575.00      6.12
  2700.00   3450.00   3850.00   3175.00      -375.00      5.88
  2700.00   3550.00   3950.00   3225.00      -425.00      2.53
  2700.00   3950.00   4750.00   3525.00      -625.00      6.58
  2700.00   2750.00   3550.00   2925.00       -25.00      5.47
  2700.00   3750.00   4440.00   3397.50      -525.00      6.72
  2700.00   2950.00   3750.00   3025.00      -125.00      5.93
  2700.00   3050.00   3850.00   3075.00      -175.00      5.27
  2700.00   3150.00   3950.00   3125.00      -225.00      4.93
  2700.00   3550.00   4350.00   3325.00      -425.00      5.09
  2700.00   3850.00   4650.00   3475.00      -575.00      6.14
  2700.00   3250.00   4050.00   3175.00      -275.00      4.03
  2700.00   3650.00   4450.00   3375.00      -475.00      5.38
  2700.00   2850.00   3650.00   2975.00       -75.00      7.19
  2700.00   3450.00   4250.00   3275.00      -375.00      6.02
  2600.00   4650.00   4750.00   3650.00     -1025.00      2.64
  2600.00   2650.00   2750.00   2650.00       -25.00      4.26
  2600.00   2750.00   2850.00   2700.00       -75.00      7.63
  2600.00   3750.00   3850.00   3200.00      -575.00      7.07
  2600.00   3050.00   3150.00   2850.00      -225.00      7.63
  2600.00   2950.00   3050.00   2800.00      -175.00      6.12
  2600.00   3250.00   3350.00   2950.00      -325.00      6.83
  2600.00   3150.00   3250.00   2900.00      -275.00      4.39
  2600.00   4250.00   4350.00   3450.00      -825.00      3.73
  2600.00   4440.00   4650.00   3572.50      -920.00      8.21
  2600.00   3950.00   4050.00   3300.00      -675.00      9.40
  2600.00   3550.00   3650.00   3100.00      -475.00      2.44
  2600.00   3450.00   3550.00   3050.00      -425.00      3.21
  2600.00   2850.00   2950.00   2750.00      -125.00      7.62
  2600.00   4440.00   4750.00   3597.50      -920.00      5.25
  2600.00   2750.00   2950.00   2725.00       -75.00      7.63
  2600.00   2650.00   2850.00   2675.00       -25.00      4.59
  2600.00   3750.00   3950.00   3225.00      -575.00      0.35
  2600.00   3550.00   3750.00   3125.00      -475.00      6.21
  2600.00   3050.00   3250.00   2875.00      -225.00      6.33
  2600.00   2850.00   3050.00   2775.00      -125.00      7.11
  2600.00   3150.00   3350.00   2925.00      -275.00      5.48
  2600.00   2950.00   3150.00   2825.00      -175.00      6.73
  2600.00   4350.00   4440.00   3497.50      -875.00      6.81
  2600.00   3850.00   4050.00   3275.00      -625.00      1.84
  2600.00   4050.00   4250.00   3375.00      -725.00      7.55
  2600.00   3650.00   3850.00   3175.00      -525.00      9.00
  2600.00   3450.00   3650.00   3075.00      -425.00      2.84
  2600.00   3250.00   3450.00   2975.00      -325.00      2.26
  2600.00   4350.00   4750.00   3575.00      -875.00      6.03
  2600.00   2750.00   3150.00   2775.00       -75.00      7.46
  2600.00   2650.00   3050.00   2725.00       -25.00      4.72
  2600.00   3350.00   3750.00   3075.00      -375.00      2.61
  2600.00   3050.00   3450.00   2925.00      -225.00      4.88
  2600.00   2950.00   3350.00   2875.00      -175.00      6.32
  2600.00   3150.00   3550.00   2975.00      -275.00      3.22
  2600.00   3950.00   4350.00   3375.00      -675.00      6.75
  2600.00   4250.00   4650.00   3525.00      -825.00      6.17
  2600.00   3650.00   4050.00   3225.00      -525.00      5.38
  2600.00   3250.00   3650.00   3025.00      -325.00      2.53
  2600.00   2850.00   3250.00   2825.00      -125.00      6.89
  2600.00   3850.00   4250.00   3325.00      -625.00      5.22
  2600.00   3450.00   3850.00   3125.00      -425.00      5.58
  2600.00   3550.00   3950.00   3175.00      -475.00      3.57
  2600.00   3950.00   4750.00   3475.00      -675.00      6.41
  2600.00   2750.00   3550.00   2875.00       -75.00      6.93
  2600.00   2650.00   3450.00   2825.00       -25.00      4.72
  2600.00   3750.00   4440.00   3347.50      -575.00      5.55
  2600.00   2950.00   3750.00   2975.00      -175.00      5.30
  2600.00   3050.00   3850.00   3025.00      -225.00      5.10
  2600.00   3150.00   3950.00   3075.00      -275.00      3.33
  2600.00   3550.00   4350.00   3275.00      -475.00      5.36
  2600.00   3850.00   4650.00   3425.00      -625.00      5.72
  2600.00   3250.00   4050.00   3125.00      -325.00      3.69
  2600.00   3650.00   4450.00   3325.00      -525.00      9.87
  2600.00   2850.00   3650.00   2925.00      -125.00      5.98
  2600.00   3450.00   4250.00   3225.00      -425.00      5.41
  2500.00   4650.00   4750.00   3600.00     -1075.00      6.17
  2500.00   2650.00   2750.00   2600.00       -75.00      7.62
  2500.00   2750.00   2850.00   2650.00      -125.00      6.82
  2500.00   2550.00   2650.00   2550.00       -25.00      3.79
  2500.00   3750.00   3850.00   3150.00      -625.00      4.14
  2500.00   3050.00   3150.00   2800.00      -275.00      4.16
  2500.00   2950.00   3050.00   2750.00      -225.00      2.73
  2500.00   3350.00   3450.00   2950.00      -425.00      4.92
  2500.00   3150.00   3250.00   2850.00      -325.00      9.99
  2500.00   4350.00   4450.00   3450.00      -925.00      8.07
  2500.00   4250.00   4350.00   3400.00      -875.00      1.81
  2500.00   4440.00   4650.00   3522.50      -970.00      8.89
  2500.00   3950.00   4050.00   3250.00      -725.00      3.33
  2500.00   3450.00   3550.00   3000.00      -475.00      5.12
  2500.00   2850.00   2950.00   2700.00      -175.00      8.46
  2500.00   4440.00   4750.00   3547.50      -970.00      7.45
  2500.00   2550.00   2750.00   2575.00       -25.00      4.08
  2500.00   2750.00   2950.00   2675.00      -125.00      7.36
  2500.00   2650.00   2850.00   2625.00       -75.00      7.42
  2500.00   3550.00   3750.00   3075.00      -525.00      8.23
  2500.00   3050.00   3250.00   2825.00      -275.00      6.72
  2500.00   2850.00   3050.00   2725.00      -175.00      6.24
  2500.00   3150.00   3350.00   2875.00      -325.00      3.27
  2500.00   3350.00   3550.00   2975.00      -425.00      4.88
  2500.00   2950.00   3150.00   2775.00      -225.00      3.35
  2500.00   4350.00   4440.00   3447.50      -925.00      8.93
  2500.00   4450.00   4650.00   3525.00      -975.00      9.51
  2500.00   3450.00   3650.00   3025.00      -475.00      2.35
  2500.00   4250.00   4450.00   3425.00      -875.00      3.84
  2500.00   4350.00   4750.00   3525.00      -925.00      8.19
  2500.00   2750.00   3150.00   2725.00      -125.00      6.29
  2500.00   2650.00   3050.00   2675.00       -75.00      7.21
  2500.00   3350.00   3750.00   3025.00      -425.00      6.43
  2500.00   3050.00   3450.00   2875.00      -275.00      3.91
  2500.00   2950.00   3350.00   2825.00      -225.00      3.32
  2500.00   3150.00   3550.00   2925.00      -325.00      3.94
  2500.00   3950.00   4350.00   3325.00      -725.00      6.44
  2500.00   4250.00   4650.00   3475.00      -875.00      6.06
  2500.00   3650.00   4050.00   3175.00      -575.00      3.33
  2500.00   4050.00   4450.00   3375.00      -775.00      7.40
  2500.00   3250.00   3650.00   2975.00      -375.00      0.70
  2500.00   2850.00   3250.00   2775.00      -175.00      6.39
  2500.00   3850.00   4250.00   3275.00      -675.00      4.94
  2500.00   3450.00   3850.00   3075.00      -475.00      6.46
  2500.00   3550.00   3950.00   3125.00      -525.00      2.35
  2500.00   2550.00   2950.00   2625.00       -25.00      4.20
  2500.00   3950.00   4750.00   3425.00      -725.00      7.31
  2500.00   2750.00   3550.00   2825.00      -125.00      5.81
  2500.00   2650.00   3450.00   2775.00       -75.00      6.80
  2500.00   3750.00   4440.00   3297.50      -625.00      5.10
  2500.00   2950.00   3750.00   2925.00      -225.00      4.33
  2500.00   3050.00   3850.00   2975.00      -275.00      4.78
  2500.00   2550.00   3350.00   2725.00       -25.00      4.19
  2500.00   3150.00   3950.00   3025.00      -325.00      3.30
  2500.00   3550.00   4350.00   3225.00      -525.00      4.69
  2500.00   3850.00   4650.00   3375.00      -675.00      5.60
  2500.00   3250.00   4050.00   3075.00      -375.00      1.80
  2500.00   3650.00   4450.00   3275.00      -575.00      5.82
  2500.00   2850.00   3650.00   2875.00      -175.00      4.84
  2500.00   3450.00   4250.00   3175.00      -475.00      5.79
  2400.00   4650.00   4750.00   3550.00     -1125.00      3.22
  2400.00   2650.00   2750.00   2550.00      -125.00      5.76
  2400.00   2750.00   2850.00   2600.00      -175.00      6.70
  2400.00   2550.00   2650.00   2500.00       -75.00      7.69
  2400.00   3650.00   3750.00   3050.00      -625.00      1.69
  2400.00   3750.00   3850.00   3100.00      -675.00      8.39
  2400.00   2950.00   3050.00   2700.00      -275.00      5.94
  2400.00   3350.00   3450.00   2900.00      -475.00      2.26
  2400.00   3150.00   3250.00   2800.00      -375.00      6.10
  2400.00   2450.00   2550.00   2450.00       -25.00      4.17
  2400.00   4350.00   4450.00   3400.00      -975.00      7.55
  2400.00   4440.00   4650.00   3472.50     -1020.00      5.89
  2400.00   3950.00   4050.00   3200.00      -775.00      2.30
  2400.00   3550.00   3650.00   3000.00      -575.00      3.65
  2400.00   4450.00   4440.00   3427.50     -1020.00      8.60
  2400.00   2850.00   2950.00   2650.00      -225.00      1.99
  2400.00   4440.00   4750.00   3497.50     -1020.00      4.47
  2400.00   2550.00   2750.00   2525.00       -75.00      7.18
  2400.00   2750.00   2950.00   2625.00      -175.00      4.91
  2400.00   2450.00   2650.00   2475.00       -25.00      4.50
  2400.00   2650.00   2850.00   2575.00      -125.00      6.08
  2400.00   3550.00   3750.00   3025.00      -575.00      2.71
  2400.00   3050.00   3250.00   2775.00      -325.00      0.70
  2400.00   2850.00   3050.00   2675.00      -225.00      3.63
  2400.00   3150.00   3350.00   2825.00      -375.00      3.19
  2400.00   3350.00   3550.00   2925.00      -475.00      7.94
  2400.00   2950.00   3150.00   2725.00      -275.00      1.65
  2400.00   4350.00   4440.00   3397.50      -975.00      7.08
  2400.00   4450.00   4650.00   3475.00     -1025.00      7.63
  2400.00   4050.00   4250.00   3275.00      -825.00      6.73
  2400.00   3650.00   3850.00   3075.00      -625.00      4.82
  2400.00   3450.00   3650.00   2975.00      -525.00      8.95
  2400.00   3250.00   3450.00   2875.00      -425.00      0.75
  2400.00   4350.00   4750.00   3475.00      -975.00      5.85
  2400.00   2750.00   3150.00   2675.00      -175.00      3.84
  2400.00   2650.00   3050.00   2625.00      -125.00      5.46
  2400.00   3350.00   3750.00   2975.00      -475.00      5.46
  2400.00   3050.00   3450.00   2825.00      -325.00      0.69
  2400.00   2950.00   3350.00   2775.00      -275.00      2.26
  2400.00   3150.00   3550.00   2875.00      -375.00      5.15
  2400.00   2450.00   2850.00   2525.00       -25.00      4.58
  2400.00   3650.00   4050.00   3125.00      -625.00      0.88
  2400.00   3250.00   3650.00   2925.00      -425.00      4.43
  2400.00   2850.00   3250.00   2725.00      -225.00      2.48
  2400.00   3850.00   4250.00   3225.00      -725.00      2.84
  2400.00   3450.00   3850.00   3025.00      -525.00      7.09
  2400.00   3550.00   3950.00   3075.00      -575.00      1.40
  2400.00   2550.00   2950.00   2575.00       -75.00      6.78
  2400.00   3950.00   4750.00   3375.00      -775.00      9.63
  2400.00   2750.00   3550.00   2775.00      -175.00      4.20
  2400.00   2650.00   3450.00   2725.00      -125.00      4.47
  2400.00   3750.00   4440.00   3247.50      -675.00      8.96
  2400.00   2950.00   3750.00   2875.00      -275.00      3.33
  2400.00   3050.00   3850.00   2925.00      -325.00      3.08
  2400.00   2550.00   3350.00   2675.00       -75.00      6.22
  2400.00   3150.00   3950.00   2975.00      -375.00      3.56
  2400.00   2450.00   3250.00   2625.00       -25.00      4.53
  2400.00   3550.00   4350.00   3175.00      -575.00      8.82
  2400.00   3850.00   4650.00   3325.00      -725.00      8.77
  2400.00   3250.00   4050.00   3025.00      -425.00      2.91
  2400.00   2850.00   3650.00   2825.00      -225.00      3.11
  2400.00   3450.00   4250.00   3125.00      -525.00      4.80
  2300.00   4650.00   4750.00   3500.00     -1175.00      3.25
  2300.00   2650.00   2750.00   2500.00      -175.00      4.82
  2300.00   2750.00   2850.00   2550.00      -225.00      2.75
  2300.00   2550.00   2650.00   2450.00      -125.00      5.98
  2300.00   3750.00   3850.00   3050.00      -725.00      6.51
  2300.00   2950.00   3050.00   2650.00      -325.00      4.60
  2300.00   2450.00   2550.00   2400.00       -75.00      7.45
  2300.00   2350.00   2450.00   2350.00       -25.00      5.90
  2300.00   4350.00   4450.00   3350.00     -1025.00      6.61
  2300.00   4440.00   4650.00   3422.50     -1070.00      2.11
  2300.00   3450.00   3550.00   2900.00      -575.00      3.32
  2300.00   2850.00   2950.00   2600.00      -275.00      4.52
  2300.00   4440.00   4750.00   3447.50     -1070.00      2.77
  2300.00   2550.00   2750.00   2475.00      -125.00      5.57
  2300.00   2750.00   2950.00   2575.00      -225.00      3.44
  2300.00   2450.00   2650.00   2425.00       -75.00      7.04
  2300.00   2650.00   2850.00   2525.00      -175.00      4.04
  2300.00   3750.00   3950.00   3075.00      -725.00      0.89
  2300.00   3050.00   3250.00   2725.00      -375.00      2.40
  2300.00   2850.00   3050.00   2625.00      -275.00      4.55
  2300.00   3150.00   3350.00   2775.00      -425.00      2.93
  2300.00   3350.00   3550.00   2875.00      -525.00      8.61
  2300.00   3850.00   4050.00   3125.00      -775.00      7.87
  2300.00   4050.00   4250.00   3225.00      -875.00      5.49
  2300.00   3650.00   3850.00   3025.00      -675.00      3.13
  2300.00   3450.00   3650.00   2925.00      -575.00      0.38
  2300.00   4250.00   4450.00   3325.00      -975.00      1.08
  2300.00   2350.00   2550.00   2375.00       -25.00      6.07
  2300.00   4350.00   4750.00   3425.00     -1025.00      7.62
  2300.00   2750.00   3150.00   2625.00      -225.00      1.68
  2300.00   2350.00   2750.00   2425.00       -25.00      6.04
  2300.00   2650.00   3050.00   2575.00      -175.00      4.20
  2300.00   3350.00   3750.00   2925.00      -525.00      3.87
  2300.00   3050.00   3450.00   2775.00      -375.00      1.33
  2300.00   2950.00   3350.00   2725.00      -325.00      0.39
  2300.00   3150.00   3550.00   2825.00      -425.00      5.35
  2300.00   2450.00   2850.00   2475.00       -75.00      6.43
  2300.00   3950.00   4350.00   3225.00      -825.00      5.02
  2300.00   4250.00   4650.00   3375.00      -975.00      5.26
  2300.00   3650.00   4050.00   3075.00      -675.00      5.54
  2300.00   4050.00   4450.00   3275.00      -875.00      3.08
  2300.00   2850.00   3250.00   2675.00      -275.00      3.71
  2300.00   3850.00   4250.00   3175.00      -775.00      6.42
  2300.00   3450.00   3850.00   2975.00      -575.00      1.61
  2300.00   2550.00   2950.00   2525.00      -125.00      5.00
  2300.00   3950.00   4750.00   3325.00      -825.00      6.35
  2300.00   2750.00   3550.00   2725.00      -225.00      2.83
  2300.00   2650.00   3450.00   2675.00      -175.00      3.43
  2300.00   3750.00   4440.00   3197.50      -725.00      6.30
  2300.00   2950.00   3750.00   2825.00      -325.00      1.71
  2300.00   3050.00   3850.00   2875.00      -375.00      1.43
  2300.00   2550.00   3350.00   2625.00      -125.00      4.03
  2300.00   3150.00   3950.00   2925.00      -425.00      2.96
  2300.00   2350.00   3150.00   2525.00       -25.00      5.89
